opt found '--format' = 'csv'
x,y,z
0.062484,0.266897,0.327661
0.059214,0.275880,0.341313
0.055945,0.284863,0.354966
0.052675,0.293847,0.368618
0.049406,0.302830,0.382271
0.046136,0.311813,0.395923
0.042867,0.320796,0.409576
0.039597,0.329779,0.423229
0.036327,0.338762,0.436881
0.033058,0.347745,0.450534
0.029788,0.356728,0.464186
0.026519,0.365711,0.477839
0.023249,0.374694,0.491491
0.019979,0.383677,0.505144
0.016710,0.392661,0.518796
0.013440,0.401644,0.532449
0.010171,0.410627,0.546101
0.006901,0.419610,0.559754
0.003632,0.428593,0.573406
0.000362,0.437576,0.587059
-0.002908,0.446559,0.600711
-0.006177,0.455542,0.614364
-0.009447,0.464525,0.628017
-0.012716,0.473508,0.641669
-0.015986,0.482491,0.655322
-0.019255,0.491475,0.668974
-0.022525,0.500458,0.682627
-0.025795,0.509441,0.696279
-0.029064,0.518424,0.709932
-0.032334,0.527407,0.723584
-0.035603,0.536390,0.737237
-0.038873,0.545373,0.750889
-0.042142,0.554356,0.764542
-0.045412,0.563339,0.778194
-0.048682,0.572322,0.791847
-0.051951,0.581305,0.805500
0.483594,-0.342967,-0.819152
0.477450,-0.335644,-0.805500
0.471305,-0.328321,-0.791847
0.465160,-0.320998,-0.778194
0.459015,-0.313675,-0.764542
0.452871,-0.306351,-0.750889
0.446726,-0.299028,-0.737237
0.440581,-0.291705,-0.723584
0.434436,-0.284382,-0.709932
0.428291,-0.277059,-0.696279
0.422147,-0.269736,-0.682627
0.416002,-0.262413,-0.668974
0.409857,-0.255090,-0.655322
0.403712,-0.247767,-0.641669
0.397567,-0.240444,-0.628017
0.391423,-0.233121,-0.614364
0.385278,-0.225798,-0.600711
0.379133,-0.218474,-0.587059
0.372988,-0.211151,-0.573406
0.366843,-0.203828,-0.559754
0.360699,-0.196505,-0.546101
0.354554,-0.189182,-0.532449
0.348409,-0.181859,-0.518796
0.342264,-0.174536,-0.505144
0.336119,-0.167213,-0.491491
0.329975,-0.159890,-0.477839
0.323830,-0.152567,-0.464186
0.317685,-0.145244,-0.450534
0.311540,-0.137921,-0.436881
0.305395,-0.130597,-0.423229
0.299251,-0.123274,-0.409576
0.293106,-0.115951,-0.395923
0.286961,-0.108628,-0.382271
0.280816,-0.101305,-0.368618
0.274671,-0.093982,-0.354966
0.268527,-0.086659,-0.341313
0.262382,-0.079336,-0.327661
0.256237,-0.072013,-0.314008
0.250092,-0.064690,-0.300356
0.243947,-0.057367,-0.286703
0.237803,-0.050044,-0.273051
0.231658,-0.042720,-0.259398
0.225513,-0.035397,-0.245746
0.219368,-0.028074,-0.232093
0.213223,-0.020751,-0.218441
0.207079,-0.013428,-0.204788
0.200934,-0.006105,-0.191135
0.194789,0.001218,-0.177483
0.188644,0.008541,-0.163830
0.182499,0.015864,-0.150178
0.176355,0.023187,-0.136525
0.170210,0.030510,-0.122873
0.164065,0.037833,-0.109220
0.157920,0.045157,-0.095568
0.151775,0.052480,-0.081915
0.145631,0.059803,-0.068263
0.139486,0.067126,-0.054610
0.133341,0.074449,-0.040958
0.127196,0.081772,-0.027305
0.121051,0.089095,-0.013653
0.114907,0.096418,0.000000
0.108762,0.103741,0.013653
0.102617,0.111064,0.027305
0.096472,0.118387,0.040958
0.090327,0.125710,0.054610
0.084183,0.133034,0.068263
0.078038,0.140357,0.081915
0.071893,0.147680,0.095568
0.065748,0.155003,0.109220
0.059603,0.162326,0.122873
0.053459,0.169649,0.136525
0.047314,0.176972,0.150178
0.041169,0.184295,0.163830
0.035024,0.191618,0.177483
0.028880,0.198941,0.191135
0.022735,0.206264,0.204788
0.016590,0.213587,0.218441
0.010445,0.220911,0.232093
0.004300,0.228234,0.245746
-0.001844,0.235557,0.259398
-0.007989,0.242880,0.273051
-0.014134,0.250203,0.286703
-0.020279,0.257526,0.300356
-0.026424,0.264849,0.314008
-0.032568,0.272172,0.327661
-0.038713,0.279495,0.341313
-0.044858,0.286818,0.354966
-0.051003,0.294141,0.368618
-0.057148,0.301464,0.382271
-0.063292,0.308788,0.395923
-0.069437,0.316111,0.409576
-0.075582,0.323434,0.423229
-0.081727,0.330757,0.436881
-0.087872,0.338080,0.450534
-0.094016,0.345403,0.464186
-0.100161,0.352726,0.477839
-0.106306,0.360049,0.491491
-0.112451,0.367372,0.505144
-0.118596,0.374695,0.518796
-0.124740,0.382018,0.532449
-0.130885,0.389342,0.546101
-0.137030,0.396665,0.559754
-0.143175,0.403988,0.573406
-0.149320,0.411311,0.587059
-0.155464,0.418634,0.600711
-0.161609,0.425957,0.614364
-0.167754,0.433280,0.628017
-0.173899,0.440603,0.641669
-0.180044,0.447926,0.655322
-0.186188,0.455249,0.668974
-0.192333,0.462572,0.682627
-0.198478,0.469895,0.696279
-0.204623,0.477219,0.709932
-0.210768,0.484542,0.723584
-0.216912,0.491865,0.737237
-0.223057,0.499188,0.750889
-0.229202,0.506511,0.764542
-0.235347,0.513834,0.778194
-0.241492,0.521157,0.791847
-0.247636,0.528480,0.805500
0.571732,-0.156884,-0.819152
0.563453,-0.152105,-0.805500
0.555174,-0.147325,-0.791847
0.546895,-0.142545,-0.778194
0.538616,-0.137765,-0.764542
0.530337,-0.132985,-0.750889
0.522059,-0.128206,-0.737237
0.513780,-0.123426,-0.723584
0.505501,-0.118646,-0.709932
0.497222,-0.113866,-0.696279
0.488943,-0.109086,-0.682627
0.480664,-0.104307,-0.668974
0.472385,-0.099527,-0.655322
0.464107,-0.094747,-0.641669
0.455828,-0.089967,-0.628017
0.447549,-0.085187,-0.614364
0.439270,-0.080408,-0.600711
0.430991,-0.075628,-0.587059
0.422712,-0.070848,-0.573406
0.414433,-0.066068,-0.559754
0.406155,-0.061288,-0.546101
0.397876,-0.056509,-0.532449
0.389597,-0.051729,-0.518796
0.381318,-0.046949,-0.505144
0.373039,-0.042169,-0.491491
0.364760,-0.037389,-0.477839
0.356481,-0.032610,-0.464186
0.348202,-0.027830,-0.450534
0.339924,-0.023050,-0.436881
0.331645,-0.018270,-0.423229
0.323366,-0.013490,-0.409576
0.315087,-0.008710,-0.395923
0.306808,-0.003931,-0.382271
0.298529,0.000849,-0.368618
0.290250,0.005629,-0.354966
0.281972,0.010409,-0.341313
0.273693,0.015189,-0.327661
0.265414,0.019968,-0.314008
0.257135,0.024748,-0.300356
0.248856,0.029528,-0.286703
0.240577,0.034308,-0.273051
0.232298,0.039088,-0.259398
0.224020,0.043867,-0.245746
0.215741,0.048647,-0.232093
0.207462,0.053427,-0.218441
0.199183,0.058207,-0.204788
0.190904,0.062987,-0.191135
0.182625,0.067766,-0.177483
0.174346,0.072546,-0.163830
0.166067,0.077326,-0.150178
0.157789,0.082106,-0.136525
0.149510,0.086886,-0.122873
0.141231,0.091665,-0.109220
0.132952,0.096445,-0.095568
0.124673,0.101225,-0.081915
0.116394,0.106005,-0.068263
0.108115,0.110785,-0.054610
0.099837,0.115564,-0.040958
0.091558,0.120344,-0.027305
0.083279,0.125124,-0.013653
0.075000,0.129904,0.000000
0.066721,0.134684,0.013653
0.058442,0.139463,0.027305
0.050163,0.144243,0.040958
0.041885,0.149023,0.054610
0.033606,0.153803,0.068263
0.025327,0.158583,0.081915
0.017048,0.163362,0.095568
0.008769,0.168142,0.109220
0.000490,0.172922,0.122873
-0.007789,0.177702,0.136525
-0.016067,0.182482,0.150178
-0.024346,0.187261,0.163830
-0.032625,0.192041,0.177483
-0.040904,0.196821,0.191135
-0.049183,0.201601,0.204788
-0.057462,0.206381,0.218441
-0.065741,0.211160,0.232093
-0.074020,0.215940,0.245746
-0.082298,0.220720,0.259398
-0.090577,0.225500,0.273051
-0.098856,0.230280,0.286703
-0.107135,0.235059,0.300356
-0.115414,0.239839,0.314008
-0.123693,0.244619,0.327661
-0.131972,0.249399,0.341313
-0.140250,0.254179,0.354966
-0.148529,0.258959,0.368618
-0.156808,0.263738,0.382271
-0.165087,0.268518,0.395923
-0.173366,0.273298,0.409576
-0.181645,0.278078,0.423229
-0.189924,0.282858,0.436881
-0.198202,0.287637,0.450534
-0.206481,0.292417,0.464186
-0.214760,0.297197,0.477839
-0.223039,0.301977,0.491491
-0.231318,0.306757,0.505144
-0.239597,0.311536,0.518796
-0.247876,0.316316,0.532449
-0.256155,0.321096,0.546101
-0.264433,0.325876,0.559754
-0.272712,0.330656,0.573406
-0.280991,0.335435,0.587059
-0.289270,0.340215,0.600711
-0.297549,0.344995,0.614364
-0.305828,0.349775,0.628017
-0.314107,0.354555,0.641669
-0.322385,0.359334,0.655322
-0.330664,0.364114,0.668974
-0.338943,0.368894,0.682627
-0.347222,0.373674,0.696279
-0.355501,0.378454,0.709932
-0.363780,0.383233,0.723584
-0.372059,0.388013,0.737237
-0.380337,0.392793,0.750889
-0.388616,0.397573,0.764542
-0.396895,0.402353,0.778194
-0.405174,0.407132,0.791847
-0.413453,0.411912,0.805500
0.590910,0.048121,-0.819152
0.581495,0.049781,-0.805500
0.572081,0.051441,-0.791847
0.562667,0.053101,-0.778194
0.553252,0.054761,-0.764542
0.543838,0.056421,-0.750889
0.534423,0.058081,-0.737237
0.525009,0.059741,-0.723584
0.515595,0.061401,-0.709932
0.506180,0.063061,-0.696279
0.496766,0.064721,-0.682627
0.487352,0.066381,-0.668974
0.477937,0.068041,-0.655322
0.468523,0.069701,-0.641669
0.459108,0.071361,-0.628017
0.449694,0.073021,-0.614364
0.440280,0.074681,-0.600711
0.430865,0.076341,-0.587059
0.421451,0.078001,-0.573406
0.412037,0.079661,-0.559754
0.402622,0.081321,-0.546101
0.393208,0.082981,-0.532449
0.383793,0.084641,-0.518796
0.374379,0.086301,-0.505144
0.364965,0.087961,-0.491491
0.355550,0.089621,-0.477839
0.346136,0.091281,-0.464186
0.336722,0.092941,-0.450534
0.327307,0.094601,-0.436881
0.317893,0.096261,-0.423229
0.308478,0.097921,-0.409576
0.299064,0.099581,-0.395923
0.289650,0.101241,-0.382271
0.280235,0.102901,-0.368618
0.270821,0.104561,-0.354966
0.261407,0.106221,-0.341313
0.251992,0.107881,-0.327661
0.242578,0.109541,-0.314008
0.233163,0.111201,-0.300356
0.223749,0.112861,-0.286703
0.214335,0.114521,-0.273051
0.204920,0.116181,-0.259398
0.195506,0.117841,-0.245746
0.186092,0.119501,-0.232093
0.176677,0.121161,-0.218441
0.167263,0.122821,-0.204788
0.157848,0.124481,-0.191135
0.148434,0.126141,-0.177483
0.139020,0.127801,-0.163830
0.129605,0.129461,-0.150178
0.120191,0.131121,-0.136525
0.110777,0.132781,-0.122873
0.101362,0.134441,-0.109220
0.091948,0.136101,-0.095568
0.082533,0.137761,-0.081915
0.073119,0.139421,-0.068263
0.063705,0.141081,-0.054610
0.054290,0.142741,-0.040958
0.044876,0.144401,-0.027305
0.035462,0.146061,-0.013653
0.026047,0.147721,0.000000
0.016633,0.149381,0.013653
0.007218,0.151041,0.027305
-0.002196,0.152701,0.040958
-0.011610,0.154361,0.054610
-0.021025,0.156021,0.068263
-0.030439,0.157681,0.081915
-0.039853,0.159341,0.095568
-0.049268,0.161001,0.109220
-0.058682,0.162661,0.122873
-0.068097,0.164321,0.136525
-0.077511,0.165981,0.150178
-0.086925,0.167641,0.163830
-0.096340,0.169301,0.177483
-0.105754,0.170961,0.191135
-0.115168,0.172621,0.204788
-0.124583,0.174281,0.218441
-0.133997,0.175941,0.232093
-0.143412,0.177601,0.245746
-0.152826,0.179261,0.259398
-0.162240,0.180921,0.273051
-0.171655,0.182581,0.286703
-0.181069,0.184241,0.300356
-0.190483,0.185901,0.314008
-0.199898,0.187561,0.327661
-0.209312,0.189221,0.341313
-0.218727,0.190881,0.354966
-0.228141,0.192541,0.368618
-0.237555,0.194201,0.382271
-0.246970,0.195861,0.395923
-0.256384,0.197521,0.409576
-0.265798,0.199181,0.423229
-0.275213,0.200841,0.436881
-0.284627,0.202501,0.450534
-0.294042,0.204161,0.464186
-0.303456,0.205821,0.477839
-0.312870,0.207481,0.491491
-0.322285,0.209141,0.505144
-0.331699,0.210801,0.518796
-0.341113,0.212461,0.532449
-0.350528,0.214121,0.546101
-0.359942,0.215782,0.559754
-0.369357,0.217442,0.573406
-0.378771,0.219102,0.587059
-0.388185,0.220762,0.600711
-0.397600,0.222422,0.614364
-0.407014,0.224082,0.628017
-0.416428,0.225742,0.641669
-0.425843,0.227402,0.655322
-0.435257,0.229062,0.668974
-0.444672,0.230722,0.682627
-0.454086,0.232382,0.696279
-0.463500,0.234042,0.709932
-0.472915,0.235702,0.723584
-0.482329,0.237362,0.737237
-0.491743,0.239022,0.750889
-0.501158,0.240682,0.764542
-0.510572,0.242342,0.778194
-0.519987,0.244002,0.791847
-0.529401,0.245662,0.805500
0.538815,0.247322,-0.819152
0.529401,0.245662,-0.805500
0.519987,0.244002,-0.791847
0.510572,0.242342,-0.778194
0.501158,0.240682,-0.764542
0.491743,0.239022,-0.750889
0.482329,0.237362,-0.737237
0.472915,0.235702,-0.723584
0.463500,0.234042,-0.709932
0.454086,0.232382,-0.696279
0.444672,0.230722,-0.682627
0.435257,0.229062,-0.668974
0.425843,0.227402,-0.655322
0.416428,0.225742,-0.641669
0.407014,0.224082,-0.628017
0.397600,0.222422,-0.614364
0.388185,0.220762,-0.600711
0.378771,0.219102,-0.587059
0.369357,0.217442,-0.573406
0.359942,0.215782,-0.559754
0.350528,0.214121,-0.546101
0.341113,0.212461,-0.532449
0.331699,0.210801,-0.518796
0.322285,0.209141,-0.505144
0.312870,0.207481,-0.491491
0.303456,0.205821,-0.477839
0.294042,0.204161,-0.464186
0.284627,0.202501,-0.450534
0.275213,0.200841,-0.436881
0.265798,0.199181,-0.423229
0.256384,0.197521,-0.409576
0.246970,0.195861,-0.395923
0.237555,0.194201,-0.382271
0.228141,0.192541,-0.368618
0.218727,0.190881,-0.354966
0.209312,0.189221,-0.341313
0.199898,0.187561,-0.327661
0.190483,0.185901,-0.314008
0.181069,0.184241,-0.300356
0.171655,0.182581,-0.286703
0.162240,0.180921,-0.273051
0.152826,0.179261,-0.259398
0.143412,0.177601,-0.245746
0.133997,0.175941,-0.232093
0.124583,0.174281,-0.218441
0.115168,0.172621,-0.204788
0.105754,0.170961,-0.191135
0.096340,0.169301,-0.177483
0.086925,0.167641,-0.163830
0.077511,0.165981,-0.150178
0.068097,0.164321,-0.136525
0.058682,0.162661,-0.122873
0.049268,0.161001,-0.109220
0.039853,0.159341,-0.095568
0.030439,0.157681,-0.081915
0.021025,0.156021,-0.068263
0.011610,0.154361,-0.054610
0.002196,0.152701,-0.040958
-0.007218,0.151041,-0.027305
-0.016633,0.149381,-0.013653
-0.026047,0.147721,0.000000
-0.035462,0.146061,0.013653
-0.044876,0.144401,0.027305
-0.054290,0.142741,0.040958
-0.063705,0.141081,0.054610
-0.073119,0.139421,0.068263
-0.082533,0.137761,0.081915
-0.091948,0.136101,0.095568
-0.101362,0.134441,0.109220
-0.110777,0.132781,0.122873
-0.120191,0.131121,0.136525
-0.129605,0.129461,0.150178
-0.139020,0.127801,0.163830
-0.148434,0.126141,0.177483
-0.157848,0.124481,0.191135
-0.167263,0.122821,0.204788
-0.176677,0.121161,0.218441
-0.186092,0.119501,0.232093
-0.195506,0.117841,0.245746
-0.204920,0.116181,0.259398
-0.214335,0.114521,0.273051
-0.223749,0.112861,0.286703
-0.233163,0.111201,0.300356
-0.242578,0.109541,0.314008
-0.251992,0.107881,0.327661
-0.261407,0.106221,0.341313
-0.270821,0.104561,0.354966
-0.280235,0.102901,0.368618
-0.289650,0.101241,0.382271
-0.299064,0.099581,0.395923
-0.308478,0.097921,0.409576
-0.317893,0.096261,0.423229
-0.327307,0.094601,0.436881
-0.336722,0.092941,0.450534
-0.346136,0.091281,0.464186
-0.355550,0.089621,0.477839
-0.364965,0.087961,0.491491
-0.374379,0.086301,0.505144
-0.383793,0.084641,0.518796
-0.393208,0.082981,0.532449
-0.402622,0.081321,0.546101
-0.412037,0.079661,0.559754
-0.421451,0.078001,0.573406
-0.430865,0.076341,0.587059
-0.440280,0.074681,0.600711
-0.449694,0.073021,0.614364
-0.459108,0.071361,0.628017
-0.468523,0.069701,0.641669
-0.477937,0.068041,0.655322
-0.487352,0.066381,0.668974
-0.496766,0.064721,0.682627
-0.506180,0.063061,0.696279
-0.515595,0.061401,0.709932
-0.525009,0.059741,0.723584
-0.534423,0.058081,0.737237
-0.543838,0.056421,0.750889
-0.553252,0.054761,0.764542
-0.562667,0.053101,0.778194
-0.572081,0.051441,0.791847
-0.581495,0.049781,0.805500
0.421732,0.416692,-0.819152
0.413453,0.411912,-0.805500
0.405174,0.407132,-0.791847
0.396895,0.402353,-0.778194
0.388616,0.397573,-0.764542
0.380337,0.392793,-0.750889
0.372059,0.388013,-0.737237
0.363780,0.383233,-0.723584
0.355501,0.378454,-0.709932
0.347222,0.373674,-0.696279
0.338943,0.368894,-0.682627
0.330664,0.364114,-0.668974
0.322385,0.359334,-0.655322
0.314107,0.354555,-0.641669
0.305828,0.349775,-0.628017
0.297549,0.344995,-0.614364
0.289270,0.340215,-0.600711
0.280991,0.335435,-0.587059
0.272712,0.330656,-0.573406
0.264433,0.325876,-0.559754
0.256155,0.321096,-0.546101
0.247876,0.316316,-0.532449
0.239597,0.311536,-0.518796
0.231318,0.306757,-0.505144
0.223039,0.301977,-0.491491
0.214760,0.297197,-0.477839
0.206481,0.292417,-0.464186
0.198202,0.287637,-0.450534
0.189924,0.282858,-0.436881
0.181645,0.278078,-0.423229
0.173366,0.273298,-0.409576
0.165087,0.268518,-0.395923
0.156808,0.263738,-0.382271
0.148529,0.258959,-0.368618
0.140250,0.254179,-0.354966
0.131972,0.249399,-0.341313
0.123693,0.244619,-0.327661
0.115414,0.239839,-0.314008
0.107135,0.235059,-0.300356
0.098856,0.230280,-0.286703
0.090577,0.225500,-0.273051
0.082298,0.220720,-0.259398
0.074020,0.215940,-0.245746
0.065741,0.211160,-0.232093
0.057462,0.206381,-0.218441
0.049183,0.201601,-0.204788
0.040904,0.196821,-0.191135
0.032625,0.192041,-0.177483
0.024346,0.187261,-0.163830
0.016067,0.182482,-0.150178
0.007789,0.177702,-0.136525
-0.000490,0.172922,-0.122873
-0.008769,0.168142,-0.109220
-0.017048,0.163362,-0.095568
-0.025327,0.158583,-0.081915
-0.033606,0.153803,-0.068263
-0.041885,0.149023,-0.054610
-0.050163,0.144243,-0.040958
-0.058442,0.139463,-0.027305
-0.066721,0.134684,-0.013653
-0.075000,0.129904,0.000000
-0.083279,0.125124,0.013653
-0.091558,0.120344,0.027305
-0.099837,0.115564,0.040958
-0.108115,0.110785,0.054610
-0.116394,0.106005,0.068263
-0.124673,0.101225,0.081915
-0.132952,0.096445,0.095568
-0.141231,0.091665,0.109220
-0.149510,0.086886,0.122873
-0.157789,0.082106,0.136525
-0.166067,0.077326,0.150178
-0.174346,0.072546,0.163830
-0.182625,0.067766,0.177483
-0.190904,0.062987,0.191135
-0.199183,0.058207,0.204788
-0.207462,0.053427,0.218441
-0.215741,0.048647,0.232093
-0.224020,0.043867,0.245746
-0.232298,0.039088,0.259398
-0.240577,0.034308,0.273051
-0.248856,0.029528,0.286703
-0.257135,0.024748,0.300356
-0.265414,0.019968,0.314008
-0.273693,0.015189,0.327661
-0.281972,0.010409,0.341313
-0.290250,0.005629,0.354966
-0.298529,0.000849,0.368618
-0.306808,-0.003931,0.382271
-0.315087,-0.008710,0.395923
-0.323366,-0.013490,0.409576
-0.331645,-0.018270,0.423229
-0.339924,-0.023050,0.436881
-0.348202,-0.027830,0.450534
-0.356481,-0.032610,0.464186
-0.364760,-0.037389,0.477839
-0.373039,-0.042169,0.491491
-0.381318,-0.046949,0.505144
-0.389597,-0.051729,0.518796
-0.397876,-0.056509,0.532449
-0.406155,-0.061288,0.546101
-0.414433,-0.066068,0.559754
-0.422712,-0.070848,0.573406
-0.430991,-0.075628,0.587059
-0.439270,-0.080408,0.600711
-0.447549,-0.085187,0.614364
-0.455828,-0.089967,0.628017
-0.464107,-0.094747,0.641669
-0.472385,-0.099527,0.655322
-0.480664,-0.104307,0.668974
-0.488943,-0.109086,0.682627
-0.497222,-0.113866,0.696279
-0.505501,-0.118646,0.709932
-0.513780,-0.123426,0.723584
-0.522059,-0.128206,0.737237
-0.530337,-0.132985,0.750889
-0.538616,-0.137765,0.764542
-0.546895,-0.142545,0.778194
-0.555174,-0.147325,0.791847
-0.563453,-0.152105,0.805500
0.253781,0.535803,-0.819152
0.247636,0.528480,-0.805500
0.241492,0.521157,-0.791847
0.235347,0.513834,-0.778194
0.229202,0.506511,-0.764542
0.223057,0.499188,-0.750889
0.216912,0.491865,-0.737237
0.210768,0.484542,-0.723584
0.204623,0.477219,-0.709932
0.198478,0.469895,-0.696279
0.192333,0.462572,-0.682627
0.186188,0.455249,-0.668974
0.180044,0.447926,-0.655322
0.173899,0.440603,-0.641669
0.167754,0.433280,-0.628017
0.161609,0.425957,-0.614364
0.155464,0.418634,-0.600711
0.149320,0.411311,-0.587059
0.143175,0.403988,-0.573406
0.137030,0.396665,-0.559754
0.130885,0.389342,-0.546101
0.124740,0.382018,-0.532449
0.118596,0.374695,-0.518796
0.112451,0.367372,-0.505144
0.106306,0.360049,-0.491491
0.100161,0.352726,-0.477839
0.094016,0.345403,-0.464186
0.087872,0.338080,-0.450534
0.081727,0.330757,-0.436881
0.075582,0.323434,-0.423229
0.069437,0.316111,-0.409576
0.063292,0.308788,-0.395923
0.057148,0.301464,-0.382271
0.051003,0.294141,-0.368618
0.044858,0.286818,-0.354966
0.038713,0.279495,-0.341313
0.032568,0.272172,-0.327661
0.026424,0.264849,-0.314008
0.020279,0.257526,-0.300356
0.014134,0.250203,-0.286703
0.007989,0.242880,-0.273051
0.001844,0.235557,-0.259398
-0.004300,0.228234,-0.245746
-0.010445,0.220911,-0.232093
-0.016590,0.213587,-0.218441
-0.022735,0.206264,-0.204788
-0.028880,0.198941,-0.191135
-0.035024,0.191618,-0.177483
-0.041169,0.184295,-0.163830
-0.047314,0.176972,-0.150178
-0.053459,0.169649,-0.136525
-0.059603,0.162326,-0.122873
-0.065748,0.155003,-0.109220
-0.071893,0.147680,-0.095568
-0.078038,0.140357,-0.081915
-0.084183,0.133034,-0.068263
-0.090327,0.125710,-0.054610
-0.096472,0.118387,-0.040958
-0.102617,0.111064,-0.027305
-0.108762,0.103741,-0.013653
-0.114907,0.096418,0.000000
-0.121051,0.089095,0.013653
-0.127196,0.081772,0.027305
-0.133341,0.074449,0.040958
-0.139486,0.067126,0.054610
-0.145631,0.059803,0.068263
-0.151775,0.052480,0.081915
-0.157920,0.045157,0.095568
-0.164065,0.037833,0.109220
-0.170210,0.030510,0.122873
-0.176355,0.023187,0.136525
-0.182499,0.015864,0.150178
-0.188644,0.008541,0.163830
-0.194789,0.001218,0.177483
-0.200934,-0.006105,0.191135
-0.207079,-0.013428,0.204788
-0.213223,-0.020751,0.218441
-0.219368,-0.028074,0.232093
-0.225513,-0.035397,0.245746
-0.231658,-0.042720,0.259398
-0.237803,-0.050044,0.273051
-0.243947,-0.057367,0.286703
-0.250092,-0.064690,0.300356
-0.256237,-0.072013,0.314008
-0.262382,-0.079336,0.327661
-0.268527,-0.086659,0.341313
-0.274671,-0.093982,0.354966
-0.280816,-0.101305,0.368618
-0.286961,-0.108628,0.382271
-0.293106,-0.115951,0.395923
-0.299251,-0.123274,0.409576
-0.305395,-0.130597,0.423229
-0.311540,-0.137921,0.436881
-0.317685,-0.145244,0.450534
-0.323830,-0.152567,0.464186
-0.329975,-0.159890,0.477839
-0.336119,-0.167213,0.491491
-0.342264,-0.174536,0.505144
-0.348409,-0.181859,0.518796
-0.354554,-0.189182,0.532449
-0.360699,-0.196505,0.546101
-0.366843,-0.203828,0.559754
-0.372988,-0.211151,0.573406
-0.379133,-0.218474,0.587059
-0.385278,-0.225798,0.600711
-0.391423,-0.233121,0.614364
-0.397567,-0.240444,0.628017
-0.403712,-0.247767,0.641669
-0.409857,-0.255090,0.655322
-0.416002,-0.262413,0.668974
-0.422147,-0.269736,0.682627
-0.428291,-0.277059,0.696279
-0.434436,-0.284382,0.709932
-0.440581,-0.291705,0.723584
-0.446726,-0.299028,0.737237
-0.452871,-0.306351,0.750889
-0.459015,-0.313675,0.764542
-0.465160,-0.320998,0.778194
-0.471305,-0.328321,0.791847
-0.477450,-0.335644,0.805500
0.055221,0.590289,-0.819152
0.051951,0.581305,-0.805500
0.048682,0.572322,-0.791847
0.045412,0.563339,-0.778194
0.042142,0.554356,-0.764542
0.038873,0.545373,-0.750889
0.035603,0.536390,-0.737237
0.032334,0.527407,-0.723584
0.029064,0.518424,-0.709932
0.025795,0.509441,-0.696279
0.022525,0.500458,-0.682627
0.019255,0.491475,-0.668974
0.015986,0.482491,-0.655322
0.012716,0.473508,-0.641669
0.009447,0.464525,-0.628017
0.006177,0.455542,-0.614364
0.002908,0.446559,-0.600711
-0.000362,0.437576,-0.587059
-0.003632,0.428593,-0.573406
-0.006901,0.419610,-0.559754
-0.010171,0.410627,-0.546101
-0.013440,0.401644,-0.532449
-0.016710,0.392661,-0.518796
-0.019979,0.383677,-0.505144
-0.023249,0.374694,-0.491491
-0.026519,0.365711,-0.477839
-0.029788,0.356728,-0.464186
-0.033058,0.347745,-0.450534
-0.036327,0.338762,-0.436881
-0.039597,0.329779,-0.423229
-0.042867,0.320796,-0.409576
-0.046136,0.311813,-0.395923
-0.049406,0.302830,-0.382271
-0.052675,0.293847,-0.368618
-0.055945,0.284863,-0.354966
-0.059214,0.275880,-0.341313
-0.062484,0.266897,-0.327661
-0.065754,0.257914,-0.314008
-0.069023,0.248931,-0.300356
-0.072293,0.239948,-0.286703
-0.075562,0.230965,-0.273051
-0.078832,0.221982,-0.259398
-0.082101,0.212999,-0.245746
-0.085371,0.204016,-0.232093
-0.088641,0.195033,-0.218441
-0.091910,0.186049,-0.204788
-0.095180,0.177066,-0.191135
-0.098449,0.168083,-0.177483
-0.101719,0.159100,-0.163830
-0.104989,0.150117,-0.150178
-0.108258,0.141134,-0.136525
-0.111528,0.132151,-0.122873
-0.114797,0.123168,-0.109220
-0.118067,0.114185,-0.095568
-0.121336,0.105202,-0.081915
-0.124606,0.096218,-0.068263
-0.127876,0.087235,-0.054610
-0.131145,0.078252,-0.040958
-0.134415,0.069269,-0.027305
-0.137684,0.060286,-0.013653
-0.140954,0.051303,0.000000
-0.144223,0.042320,0.013653
-0.147493,0.033337,0.027305
-0.150763,0.024354,0.040958
-0.154032,0.015371,0.054610
-0.157302,0.006388,0.068263
-0.160571,-0.002596,0.081915
-0.163841,-0.011579,0.095568
-0.167111,-0.020562,0.109220
-0.170380,-0.029545,0.122873
-0.173650,-0.038528,0.136525
-0.176919,-0.047511,0.150178
-0.180189,-0.056494,0.163830
-0.183458,-0.065477,0.177483
-0.186728,-0.074460,0.191135
-0.189998,-0.083443,0.204788
-0.193267,-0.092426,0.218441
-0.196537,-0.101410,0.232093
-0.199806,-0.110393,0.245746
-0.203076,-0.119376,0.259398
-0.206345,-0.128359,0.273051
-0.209615,-0.137342,0.286703
-0.212885,-0.146325,0.300356
-0.216154,-0.155308,0.314008
-0.219424,-0.164291,0.327661
-0.222693,-0.173274,0.341313
-0.225963,-0.182257,0.354966
-0.229233,-0.191240,0.368618
-0.232502,-0.200224,0.382271
-0.235772,-0.209207,0.395923
-0.239041,-0.218190,0.409576
-0.242311,-0.227173,0.423229
-0.245580,-0.236156,0.436881
-0.248850,-0.245139,0.450534
-0.252120,-0.254122,0.464186
-0.255389,-0.263105,0.477839
-0.258659,-0.272088,0.491491
-0.261928,-0.281071,0.505144
-0.265198,-0.290054,0.518796
-0.268467,-0.299038,0.532449
-0.271737,-0.308021,0.546101
-0.275007,-0.317004,0.559754
-0.278276,-0.325987,0.573406
-0.281546,-0.334970,0.587059
-0.284815,-0.343953,0.600711
-0.288085,-0.352936,0.614364
-0.291354,-0.361919,0.628017
-0.294624,-0.370902,0.641669
-0.297894,-0.379885,0.655322
-0.301163,-0.388869,0.668974
-0.304433,-0.397852,0.682627
-0.307702,-0.406835,0.696279
-0.310972,-0.415818,0.709932
-0.314242,-0.424801,0.723584
-0.317511,-0.433784,0.737237
-0.320781,-0.442767,0.750889
-0.324050,-0.451750,0.764542
-0.327320,-0.460733,0.778194
-0.330589,-0.469716,0.791847
-0.333859,-0.478699,0.805500
-0.150000,0.573576,-0.819152
-0.150000,0.564017,-0.805500
-0.150000,0.554457,-0.791847
-0.150000,0.544898,-0.778194
-0.150000,0.535338,-0.764542
-0.150000,0.525778,-0.750889
-0.150000,0.516219,-0.737237
-0.150000,0.506659,-0.723584
-0.150000,0.497100,-0.709932
-0.150000,0.487540,-0.696279
-0.150000,0.477980,-0.682627
-0.150000,0.468421,-0.668974
-0.150000,0.458861,-0.655322
-0.150000,0.449302,-0.641669
-0.150000,0.439742,-0.628017
-0.150000,0.430182,-0.614364
-0.150000,0.420623,-0.600711
-0.150000,0.411063,-0.587059
-0.150000,0.401504,-0.573406
-0.150000,0.391944,-0.559754
-0.150000,0.382384,-0.546101
-0.150000,0.372825,-0.532449
-0.150000,0.363265,-0.518796
-0.150000,0.353705,-0.505144
-0.150000,0.344146,-0.491491
-0.150000,0.334586,-0.477839
-0.150000,0.325027,-0.464186
-0.150000,0.315467,-0.450534
-0.150000,0.305907,-0.436881
-0.150000,0.296348,-0.423229
-0.150000,0.286788,-0.409576
-0.150000,0.277229,-0.395923
-0.150000,0.267669,-0.382271
-0.150000,0.258109,-0.368618
-0.150000,0.248550,-0.354966
-0.150000,0.238990,-0.341313
-0.150000,0.229431,-0.327661
-0.150000,0.219871,-0.314008
-0.150000,0.210311,-0.300356
-0.150000,0.200752,-0.286703
-0.150000,0.191192,-0.273051
-0.150000,0.181633,-0.259398
-0.150000,0.172073,-0.245746
-0.150000,0.162513,-0.232093
-0.150000,0.152954,-0.218441
-0.150000,0.143394,-0.204788
-0.150000,0.133835,-0.191135
-0.150000,0.124275,-0.177483
-0.150000,0.114715,-0.163830
-0.150000,0.105156,-0.150178
-0.150000,0.095596,-0.136525
-0.150000,0.086036,-0.122873
-0.150000,0.076477,-0.109220
-0.150000,0.066917,-0.095568
-0.150000,0.057358,-0.081915
-0.150000,0.047798,-0.068263
-0.150000,0.038238,-0.054610
-0.150000,0.028679,-0.040958
-0.150000,0.019119,-0.027305
-0.150000,0.009560,-0.013653
-0.150000,0.000000,0.000000
-0.150000,-0.009560,0.013653
-0.150000,-0.019119,0.027305
-0.150000,-0.028679,0.040958
-0.150000,-0.038238,0.054610
-0.150000,-0.047798,0.068263
-0.150000,-0.057358,0.081915
-0.150000,-0.066917,0.095568
-0.150000,-0.076477,0.109220
-0.150000,-0.086036,0.122873
-0.150000,-0.095596,0.136525
-0.150000,-0.105156,0.150178
-0.150000,-0.114715,0.163830
-0.150000,-0.124275,0.177483
-0.150000,-0.133835,0.191135
-0.150000,-0.143394,0.204788
-0.150000,-0.152954,0.218441
-0.150000,-0.162513,0.232093
-0.150000,-0.172073,0.245746
-0.150000,-0.181633,0.259398
-0.150000,-0.191192,0.273051
-0.150000,-0.200752,0.286703
-0.150000,-0.210311,0.300356
-0.150000,-0.219871,0.314008
-0.150000,-0.229431,0.327661
-0.150000,-0.238990,0.341313
-0.150000,-0.248550,0.354966
-0.150000,-0.258109,0.368618
-0.150000,-0.267669,0.382271
-0.150000,-0.277229,0.395923
-0.150000,-0.286788,0.409576
-0.150000,-0.296348,0.423229
-0.150000,-0.305907,0.436881
-0.150000,-0.315467,0.450534
-0.150000,-0.325027,0.464186
-0.150000,-0.334586,0.477839
-0.150000,-0.344146,0.491491
-0.150000,-0.353705,0.505144
-0.150000,-0.363265,0.518796
-0.150000,-0.372825,0.532449
-0.150000,-0.382384,0.546101
-0.150000,-0.391944,0.559754
-0.150000,-0.401504,0.573406
-0.150000,-0.411063,0.587059
-0.150000,-0.420623,0.600711
-0.150000,-0.430182,0.614364
-0.150000,-0.439742,0.628017
-0.150000,-0.449302,0.641669
-0.150000,-0.458861,0.655322
-0.150000,-0.468421,0.668974
-0.150000,-0.477980,0.682627
-0.150000,-0.487540,0.696279
-0.150000,-0.497100,0.709932
-0.150000,-0.506659,0.723584
-0.150000,-0.516219,0.737237
-0.150000,-0.525778,0.750889
-0.150000,-0.535338,0.764542
-0.150000,-0.544898,0.778194
-0.150000,-0.554457,0.791847
-0.150000,-0.564017,0.805500
-0.337129,0.487683,-0.819152
-0.333859,0.478699,-0.805500
-0.330589,0.469716,-0.791847
-0.327320,0.460733,-0.778194
-0.324050,0.451750,-0.764542
-0.320781,0.442767,-0.750889
-0.317511,0.433784,-0.737237
-0.314242,0.424801,-0.723584
-0.310972,0.415818,-0.709932
-0.307702,0.406835,-0.696279
-0.304433,0.397852,-0.682627
-0.301163,0.388869,-0.668974
-0.297894,0.379885,-0.655322
-0.294624,0.370902,-0.641669
-0.291354,0.361919,-0.628017
-0.288085,0.352936,-0.614364
-0.284815,0.343953,-0.600711
-0.281546,0.334970,-0.587059
-0.278276,0.325987,-0.573406
-0.275007,0.317004,-0.559754
-0.271737,0.308021,-0.546101
-0.268467,0.299038,-0.532449
-0.265198,0.290054,-0.518796
-0.261928,0.281071,-0.505144
-0.258659,0.272088,-0.491491
-0.255389,0.263105,-0.477839
-0.252120,0.254122,-0.464186
-0.248850,0.245139,-0.450534
-0.245580,0.236156,-0.436881
-0.242311,0.227173,-0.423229
-0.239041,0.218190,-0.409576
-0.235772,0.209207,-0.395923
-0.232502,0.200224,-0.382271
-0.229233,0.191240,-0.368618
-0.225963,0.182257,-0.354966
-0.222693,0.173274,-0.341313
-0.219424,0.164291,-0.327661
-0.216154,0.155308,-0.314008
-0.212885,0.146325,-0.300356
-0.209615,0.137342,-0.286703
-0.206345,0.128359,-0.273051
-0.203076,0.119376,-0.259398
-0.199806,0.110393,-0.245746
-0.196537,0.101410,-0.232093
-0.193267,0.092426,-0.218441
-0.189998,0.083443,-0.204788
-0.186728,0.074460,-0.191135
-0.183458,0.065477,-0.177483
-0.180189,0.056494,-0.163830
-0.176919,0.047511,-0.150178
-0.173650,0.038528,-0.136525
-0.170380,0.029545,-0.122873
-0.167111,0.020562,-0.109220
-0.163841,0.011579,-0.095568
-0.160571,0.002596,-0.081915
-0.157302,-0.006388,-0.068263
-0.154032,-0.015371,-0.054610
-0.150763,-0.024354,-0.040958
-0.147493,-0.033337,-0.027305
-0.144223,-0.042320,-0.013653
-0.140954,-0.051303,0.000000
-0.137684,-0.060286,0.013653
-0.134415,-0.069269,0.027305
-0.131145,-0.078252,0.040958
-0.127876,-0.087235,0.054610
-0.124606,-0.096218,0.068263
-0.121336,-0.105202,0.081915
-0.118067,-0.114185,0.095568
-0.114797,-0.123168,0.109220
-0.111528,-0.132151,0.122873
-0.108258,-0.141134,0.136525
-0.104989,-0.150117,0.150178
-0.101719,-0.159100,0.163830
-0.098449,-0.168083,0.177483
-0.095180,-0.177066,0.191135
-0.091910,-0.186049,0.204788
-0.088641,-0.195033,0.218441
-0.085371,-0.204016,0.232093
-0.082101,-0.212999,0.245746
-0.078832,-0.221982,0.259398
-0.075562,-0.230965,0.273051
-0.072293,-0.239948,0.286703
-0.069023,-0.248931,0.300356
-0.065754,-0.257914,0.314008
-0.062484,-0.266897,0.327661
-0.059214,-0.275880,0.341313
-0.055945,-0.284863,0.354966
-0.052675,-0.293847,0.368618
-0.049406,-0.302830,0.382271
-0.046136,-0.311813,0.395923
-0.042867,-0.320796,0.409576
-0.039597,-0.329779,0.423229
-0.036327,-0.338762,0.436881
-0.033058,-0.347745,0.450534
-0.029788,-0.356728,0.464186
-0.026519,-0.365711,0.477839
-0.023249,-0.374694,0.491491
-0.019979,-0.383677,0.505144
-0.016710,-0.392661,0.518796
-0.013440,-0.401644,0.532449
-0.010171,-0.410627,0.546101
-0.006901,-0.419610,0.559754
-0.003632,-0.428593,0.573406
-0.000362,-0.437576,0.587059
0.002908,-0.446559,0.600711
0.006177,-0.455542,0.614364
0.009447,-0.464525,0.628017
0.012716,-0.473508,0.641669
0.015986,-0.482491,0.655322
0.019255,-0.491475,0.668974
0.022525,-0.500458,0.682627
0.025795,-0.509441,0.696279
0.029064,-0.518424,0.709932
0.032334,-0.527407,0.723584
0.035603,-0.536390,0.737237
0.038873,-0.545373,0.750889
0.042142,-0.554356,0.764542
0.045412,-0.563339,0.778194
0.048682,-0.572322,0.791847
0.051951,-0.581305,0.805500
-0.483594,0.342967,-0.819152
-0.477450,0.335644,-0.805500
-0.471305,0.328321,-0.791847
-0.465160,0.320998,-0.778194
-0.459015,0.313675,-0.764542
-0.452871,0.306351,-0.750889
-0.446726,0.299028,-0.737237
-0.440581,0.291705,-0.723584
-0.434436,0.284382,-0.709932
-0.428291,0.277059,-0.696279
-0.422147,0.269736,-0.682627
-0.416002,0.262413,-0.668974
-0.409857,0.255090,-0.655322
-0.403712,0.247767,-0.641669
-0.397567,0.240444,-0.628017
-0.391423,0.233121,-0.614364
-0.385278,0.225798,-0.600711
-0.379133,0.218474,-0.587059
-0.372988,0.211151,-0.573406
-0.366843,0.203828,-0.559754
-0.360699,0.196505,-0.546101
-0.354554,0.189182,-0.532449
-0.348409,0.181859,-0.518796
-0.342264,0.174536,-0.505144
-0.336119,0.167213,-0.491491
-0.329975,0.159890,-0.477839
-0.323830,0.152567,-0.464186
-0.317685,0.145244,-0.450534
-0.311540,0.137921,-0.436881
-0.305395,0.130597,-0.423229
-0.299251,0.123274,-0.409576
-0.293106,0.115951,-0.395923
-0.286961,0.108628,-0.382271
-0.280816,0.101305,-0.368618
-0.274671,0.093982,-0.354966
-0.268527,0.086659,-0.341313
-0.262382,0.079336,-0.327661
-0.256237,0.072013,-0.314008
-0.250092,0.064690,-0.300356
-0.243947,0.057367,-0.286703
-0.237803,0.050044,-0.273051
-0.231658,0.042720,-0.259398
-0.225513,0.035397,-0.245746
-0.219368,0.028074,-0.232093
-0.213223,0.020751,-0.218441
-0.207079,0.013428,-0.204788
-0.200934,0.006105,-0.191135
-0.194789,-0.001218,-0.177483
-0.188644,-0.008541,-0.163830
-0.182499,-0.015864,-0.150178
-0.176355,-0.023187,-0.136525
-0.170210,-0.030510,-0.122873
-0.164065,-0.037833,-0.109220
-0.157920,-0.045157,-0.095568
-0.151775,-0.052480,-0.081915
-0.145631,-0.059803,-0.068263
-0.139486,-0.067126,-0.054610
-0.133341,-0.074449,-0.040958
-0.127196,-0.081772,-0.027305
-0.121051,-0.089095,-0.013653
-0.114907,-0.096418,0.000000
-0.108762,-0.103741,0.013653
-0.102617,-0.111064,0.027305
-0.096472,-0.118387,0.040958
-0.090327,-0.125710,0.054610
-0.084183,-0.133034,0.068263
-0.078038,-0.140357,0.081915
-0.071893,-0.147680,0.095568
-0.065748,-0.155003,0.109220
-0.059603,-0.162326,0.122873
-0.053459,-0.169649,0.136525
-0.047314,-0.176972,0.150178
-0.041169,-0.184295,0.163830
-0.035024,-0.191618,0.177483
-0.028880,-0.198941,0.191135
-0.022735,-0.206264,0.204788
-0.016590,-0.213587,0.218441
-0.010445,-0.220911,0.232093
-0.004300,-0.228234,0.245746
0.001844,-0.235557,0.259398
0.007989,-0.242880,0.273051
0.014134,-0.250203,0.286703
0.020279,-0.257526,0.300356
0.026424,-0.264849,0.314008
0.032568,-0.272172,0.327661
0.038713,-0.279495,0.341313
0.044858,-0.286818,0.354966
0.051003,-0.294141,0.368618
0.057148,-0.301464,0.382271
0.063292,-0.308788,0.395923
0.069437,-0.316111,0.409576
0.075582,-0.323434,0.423229
0.081727,-0.330757,0.436881
0.087872,-0.338080,0.450534
0.094016,-0.345403,0.464186
0.100161,-0.352726,0.477839
0.106306,-0.360049,0.491491
0.112451,-0.367372,0.505144
0.118596,-0.374695,0.518796
0.124740,-0.382018,0.532449
0.130885,-0.389342,0.546101
0.137030,-0.396665,0.559754
0.143175,-0.403988,0.573406
0.149320,-0.411311,0.587059
0.155464,-0.418634,0.600711
0.161609,-0.425957,0.614364
0.167754,-0.433280,0.628017
0.173899,-0.440603,0.641669
0.180044,-0.447926,0.655322
0.186188,-0.455249,0.668974
0.192333,-0.462572,0.682627
0.198478,-0.469895,0.696279
0.204623,-0.477219,0.709932
0.210768,-0.484542,0.723584
0.216912,-0.491865,0.737237
0.223057,-0.499188,0.750889
0.229202,-0.506511,0.764542
0.235347,-0.513834,0.778194
0.241492,-0.521157,0.791847
0.247636,-0.528480,0.805500
-0.571732,0.156884,-0.819152
-0.563453,0.152105,-0.805500
-0.555174,0.147325,-0.791847
-0.546895,0.142545,-0.778194
-0.538616,0.137765,-0.764542
-0.530337,0.132985,-0.750889
-0.522059,0.128206,-0.737237
-0.513780,0.123426,-0.723584
-0.505501,0.118646,-0.709932
-0.497222,0.113866,-0.696279
-0.488943,0.109086,-0.682627
-0.480664,0.104307,-0.668974
-0.472385,0.099527,-0.655322
-0.464107,0.094747,-0.641669
-0.455828,0.089967,-0.628017
-0.447549,0.085187,-0.614364
-0.439270,0.080408,-0.600711
-0.430991,0.075628,-0.587059
-0.422712,0.070848,-0.573406
-0.414433,0.066068,-0.559754
-0.406155,0.061288,-0.546101
-0.397876,0.056509,-0.532449
-0.389597,0.051729,-0.518796
-0.381318,0.046949,-0.505144
-0.373039,0.042169,-0.491491
-0.364760,0.037389,-0.477839
-0.356481,0.032610,-0.464186
-0.348202,0.027830,-0.450534
-0.339924,0.023050,-0.436881
-0.331645,0.018270,-0.423229
-0.323366,0.013490,-0.409576
-0.315087,0.008710,-0.395923
-0.306808,0.003931,-0.382271
-0.298529,-0.000849,-0.368618
-0.290250,-0.005629,-0.354966
-0.281972,-0.010409,-0.341313
-0.273693,-0.015189,-0.327661
-0.265414,-0.019968,-0.314008
-0.257135,-0.024748,-0.300356
-0.248856,-0.029528,-0.286703
-0.240577,-0.034308,-0.273051
-0.232298,-0.039088,-0.259398
-0.224020,-0.043867,-0.245746
-0.215741,-0.048647,-0.232093
-0.207462,-0.053427,-0.218441
-0.199183,-0.058207,-0.204788
-0.190904,-0.062987,-0.191135
-0.182625,-0.067766,-0.177483
-0.174346,-0.072546,-0.163830
-0.166067,-0.077326,-0.150178
-0.157789,-0.082106,-0.136525
-0.149510,-0.086886,-0.122873
-0.141231,-0.091665,-0.109220
-0.132952,-0.096445,-0.095568
-0.124673,-0.101225,-0.081915
-0.116394,-0.106005,-0.068263
-0.108115,-0.110785,-0.054610
-0.099837,-0.115564,-0.040958
-0.091558,-0.120344,-0.027305
-0.083279,-0.125124,-0.013653
-0.075000,-0.129904,0.000000
-0.066721,-0.134684,0.013653
-0.058442,-0.139463,0.027305
-0.050163,-0.144243,0.040958
-0.041885,-0.149023,0.054610
-0.033606,-0.153803,0.068263
-0.025327,-0.158583,0.081915
-0.017048,-0.163362,0.095568
-0.008769,-0.168142,0.109220
-0.000490,-0.172922,0.122873
0.007789,-0.177702,0.136525
0.016067,-0.182482,0.150178
0.024346,-0.187261,0.163830
0.032625,-0.192041,0.177483
0.040904,-0.196821,0.191135
0.049183,-0.201601,0.204788
0.057462,-0.206381,0.218441
0.065741,-0.211160,0.232093
0.074020,-0.215940,0.245746
0.082298,-0.220720,0.259398
0.090577,-0.225500,0.273051
0.098856,-0.230280,0.286703
0.107135,-0.235059,0.300356
0.115414,-0.239839,0.314008
0.123693,-0.244619,0.327661
0.131972,-0.249399,0.341313
0.140250,-0.254179,0.354966
0.148529,-0.258959,0.368618
0.156808,-0.263738,0.382271
0.165087,-0.268518,0.395923
0.173366,-0.273298,0.409576
0.181645,-0.278078,0.423229
0.189924,-0.282858,0.436881
0.198202,-0.287637,0.450534
0.206481,-0.292417,0.464186
0.214760,-0.297197,0.477839
0.223039,-0.301977,0.491491
0.231318,-0.306757,0.505144
0.239597,-0.311536,0.518796
0.247876,-0.316316,0.532449
0.256155,-0.321096,0.546101
0.264433,-0.325876,0.559754
0.272712,-0.330656,0.573406
0.280991,-0.335435,0.587059
0.289270,-0.340215,0.600711
0.297549,-0.344995,0.614364
0.305828,-0.349775,0.628017
0.314107,-0.354555,0.641669
0.322385,-0.359334,0.655322
0.330664,-0.364114,0.668974
0.338943,-0.368894,0.682627
0.347222,-0.373674,0.696279
0.355501,-0.378454,0.709932
0.363780,-0.383233,0.723584
0.372059,-0.388013,0.737237
0.380337,-0.392793,0.750889
0.388616,-0.397573,0.764542
0.396895,-0.402353,0.778194
0.405174,-0.407132,0.791847
0.413453,-0.411912,0.805500
-0.590910,-0.048121,-0.819152
-0.581495,-0.049781,-0.805500
-0.572081,-0.051441,-0.791847
-0.562667,-0.053101,-0.778194
-0.553252,-0.054761,-0.764542
-0.543838,-0.056421,-0.750889
-0.534423,-0.058081,-0.737237
-0.525009,-0.059741,-0.723584
-0.515595,-0.061401,-0.709932
-0.506180,-0.063061,-0.696279
-0.496766,-0.064721,-0.682627
-0.487352,-0.066381,-0.668974
-0.477937,-0.068041,-0.655322
-0.468523,-0.069701,-0.641669
-0.459108,-0.071361,-0.628017
-0.449694,-0.073021,-0.614364
-0.440280,-0.074681,-0.600711
-0.430865,-0.076341,-0.587059
-0.421451,-0.078001,-0.573406
-0.412037,-0.079661,-0.559754
-0.402622,-0.081321,-0.546101
-0.393208,-0.082981,-0.532449
-0.383793,-0.084641,-0.518796
-0.374379,-0.086301,-0.505144
-0.364965,-0.087961,-0.491491
-0.355550,-0.089621,-0.477839
-0.346136,-0.091281,-0.464186
-0.336722,-0.092941,-0.450534
-0.327307,-0.094601,-0.436881
-0.317893,-0.096261,-0.423229
-0.308478,-0.097921,-0.409576
-0.299064,-0.099581,-0.395923
-0.289650,-0.101241,-0.382271
-0.280235,-0.102901,-0.368618
-0.270821,-0.104561,-0.354966
-0.261407,-0.106221,-0.341313
-0.251992,-0.107881,-0.327661
-0.242578,-0.109541,-0.314008
-0.233163,-0.111201,-0.300356
-0.223749,-0.112861,-0.286703
-0.214335,-0.114521,-0.273051
-0.204920,-0.116181,-0.259398
-0.195506,-0.117841,-0.245746
-0.186092,-0.119501,-0.232093
-0.176677,-0.121161,-0.218441
-0.167263,-0.122821,-0.204788
-0.157848,-0.124481,-0.191135
-0.148434,-0.126141,-0.177483
-0.139020,-0.127801,-0.163830
-0.129605,-0.129461,-0.150178
-0.120191,-0.131121,-0.136525
-0.110777,-0.132781,-0.122873
-0.101362,-0.134441,-0.109220
-0.091948,-0.136101,-0.095568
-0.082533,-0.137761,-0.081915
-0.073119,-0.139421,-0.068263
-0.063705,-0.141081,-0.054610
-0.054290,-0.142741,-0.040958
-0.044876,-0.144401,-0.027305
-0.035462,-0.146061,-0.013653
-0.026047,-0.147721,0.000000
-0.016633,-0.149381,0.013653
-0.007218,-0.151041,0.027305
0.002196,-0.152701,0.040958
0.011610,-0.154361,0.054610
0.021025,-0.156021,0.068263
0.030439,-0.157681,0.081915
0.039853,-0.159341,0.095568
0.049268,-0.161001,0.109220
0.058682,-0.162661,0.122873
0.068097,-0.164321,0.136525
0.077511,-0.165981,0.150178
0.086925,-0.167641,0.163830
0.096340,-0.169301,0.177483
0.105754,-0.170961,0.191135
0.115168,-0.172621,0.204788
0.124583,-0.174281,0.218441
0.133997,-0.175941,0.232093
0.143412,-0.177601,0.245746
0.152826,-0.179261,0.259398
0.162240,-0.180921,0.273051
0.171655,-0.182581,0.286703
0.181069,-0.184241,0.300356
0.190483,-0.185901,0.314008
0.199898,-0.187561,0.327661
0.209312,-0.189221,0.341313
0.218727,-0.190881,0.354966
0.228141,-0.192541,0.368618
0.237555,-0.194201,0.382271
0.246970,-0.195861,0.395923
0.256384,-0.197521,0.409576
0.265798,-0.199181,0.423229
0.275213,-0.200841,0.436881
0.284627,-0.202501,0.450534
0.294042,-0.204161,0.464186
0.303456,-0.205821,0.477839
0.312870,-0.207481,0.491491
0.322285,-0.209141,0.505144
0.331699,-0.210801,0.518796
0.341113,-0.212461,0.532449
0.350528,-0.214121,0.546101
0.359942,-0.215782,0.559754
0.369357,-0.217442,0.573406
0.378771,-0.219102,0.587059
0.388185,-0.220762,0.600711
0.397600,-0.222422,0.614364
0.407014,-0.224082,0.628017
0.416428,-0.225742,0.641669
0.425843,-0.227402,0.655322
0.435257,-0.229062,0.668974
0.444672,-0.230722,0.682627
0.454086,-0.232382,0.696279
0.463500,-0.234042,0.709932
0.472915,-0.235702,0.723584
0.482329,-0.237362,0.737237
0.491743,-0.239022,0.750889
0.501158,-0.240682,0.764542
0.510572,-0.242342,0.778194
0.519987,-0.244002,0.791847
0.529401,-0.245662,0.805500
-0.538815,-0.247322,-0.819152
-0.529401,-0.245662,-0.805500
-0.519987,-0.244002,-0.791847
-0.510572,-0.242342,-0.778194
-0.501158,-0.240682,-0.764542
-0.491743,-0.239022,-0.750889
-0.482329,-0.237362,-0.737237
-0.472915,-0.235702,-0.723584
-0.463500,-0.234042,-0.709932
-0.454086,-0.232382,-0.696279
-0.444672,-0.230722,-0.682627
-0.435257,-0.229062,-0.668974
-0.425843,-0.227402,-0.655322
-0.416428,-0.225742,-0.641669
-0.407014,-0.224082,-0.628017
-0.397600,-0.222422,-0.614364
-0.388185,-0.220762,-0.600711
-0.378771,-0.219102,-0.587059
-0.369357,-0.217442,-0.573406
-0.359942,-0.215782,-0.559754
-0.350528,-0.214121,-0.546101
-0.341113,-0.212461,-0.532449
-0.331699,-0.210801,-0.518796
-0.322285,-0.209141,-0.505144
-0.312870,-0.207481,-0.491491
-0.303456,-0.205821,-0.477839
-0.294042,-0.204161,-0.464186
-0.284627,-0.202501,-0.450534
-0.275213,-0.200841,-0.436881
-0.265798,-0.199181,-0.423229
-0.256384,-0.197521,-0.409576
-0.246970,-0.195861,-0.395923
-0.237555,-0.194201,-0.382271
-0.228141,-0.192541,-0.368618
-0.218727,-0.190881,-0.354966
-0.209312,-0.189221,-0.341313
-0.199898,-0.187561,-0.327661
-0.190483,-0.185901,-0.314008
-0.181069,-0.184241,-0.300356
-0.171655,-0.182581,-0.286703
-0.162240,-0.180921,-0.273051
-0.152826,-0.179261,-0.259398
-0.143412,-0.177601,-0.245746
-0.133997,-0.175941,-0.232093
-0.124583,-0.174281,-0.218441
-0.115168,-0.172621,-0.204788
-0.105754,-0.170961,-0.191135
-0.096340,-0.169301,-0.177483
-0.086925,-0.167641,-0.163830
-0.077511,-0.165981,-0.150178
-0.068097,-0.164321,-0.136525
-0.058682,-0.162661,-0.122873
-0.049268,-0.161001,-0.109220
-0.039853,-0.159341,-0.095568
-0.030439,-0.157681,-0.081915
-0.021025,-0.156021,-0.068263
-0.011610,-0.154361,-0.054610
-0.002196,-0.152701,-0.040958
0.007218,-0.151041,-0.027305
0.016633,-0.149381,-0.013653
0.026047,-0.147721,0.000000
0.035462,-0.146061,0.013653
0.044876,-0.144401,0.027305
0.054290,-0.142741,0.040958
0.063705,-0.141081,0.054610
0.073119,-0.139421,0.068263
0.082533,-0.137761,0.081915
0.091948,-0.136101,0.095568
0.101362,-0.134441,0.109220
0.110777,-0.132781,0.122873
0.120191,-0.131121,0.136525
0.129605,-0.129461,0.150178
0.139020,-0.127801,0.163830
0.148434,-0.126141,0.177483
0.157848,-0.124481,0.191135
0.167263,-0.122821,0.204788
0.176677,-0.121161,0.218441
0.186092,-0.119501,0.232093
0.195506,-0.117841,0.245746
0.204920,-0.116181,0.259398
0.214335,-0.114521,0.273051
0.223749,-0.112861,0.286703
0.233163,-0.111201,0.300356
0.242578,-0.109541,0.314008
0.251992,-0.107881,0.327661
0.261407,-0.106221,0.341313
0.270821,-0.104561,0.354966
0.280235,-0.102901,0.368618
0.289650,-0.101241,0.382271
0.299064,-0.099581,0.395923
0.308478,-0.097921,0.409576
0.317893,-0.096261,0.423229
0.327307,-0.094601,0.436881
0.336722,-0.092941,0.450534
0.346136,-0.091281,0.464186
0.355550,-0.089621,0.477839
0.364965,-0.087961,0.491491
0.374379,-0.086301,0.505144
0.383793,-0.084641,0.518796
0.393208,-0.082981,0.532449
0.402622,-0.081321,0.546101
0.412037,-0.079661,0.559754
0.421451,-0.078001,0.573406
0.430865,-0.076341,0.587059
0.440280,-0.074681,0.600711
0.449694,-0.073021,0.614364
0.459108,-0.071361,0.628017
0.468523,-0.069701,0.641669
0.477937,-0.068041,0.655322
0.487352,-0.066381,0.668974
0.496766,-0.064721,0.682627
0.506180,-0.063061,0.696279
0.515595,-0.061401,0.709932
0.525009,-0.059741,0.723584
0.534423,-0.058081,0.737237
0.543838,-0.056421,0.750889
0.553252,-0.054761,0.764542
0.562667,-0.053101,0.778194
0.572081,-0.051441,0.791847
0.581495,-0.049781,0.805500
-0.421732,-0.416692,-0.819152
-0.413453,-0.411912,-0.805500
-0.405174,-0.407132,-0.791847
-0.396895,-0.402353,-0.778194
-0.388616,-0.397573,-0.764542
-0.380337,-0.392793,-0.750889
-0.372059,-0.388013,-0.737237
-0.363780,-0.383233,-0.723584
-0.355501,-0.378454,-0.709932
-0.347222,-0.373674,-0.696279
-0.338943,-0.368894,-0.682627
-0.330664,-0.364114,-0.668974
-0.322385,-0.359334,-0.655322
-0.314107,-0.354555,-0.641669
-0.305828,-0.349775,-0.628017
-0.297549,-0.344995,-0.614364
-0.289270,-0.340215,-0.600711
-0.280991,-0.335435,-0.587059
-0.272712,-0.330656,-0.573406
-0.264433,-0.325876,-0.559754
-0.256155,-0.321096,-0.546101
-0.247876,-0.316316,-0.532449
-0.239597,-0.311536,-0.518796
-0.231318,-0.306757,-0.505144
-0.223039,-0.301977,-0.491491
-0.214760,-0.297197,-0.477839
-0.206481,-0.292417,-0.464186
-0.198202,-0.287637,-0.450534
-0.189924,-0.282858,-0.436881
-0.181645,-0.278078,-0.423229
-0.173366,-0.273298,-0.409576
-0.165087,-0.268518,-0.395923
-0.156808,-0.263738,-0.382271
-0.148529,-0.258959,-0.368618
-0.140250,-0.254179,-0.354966
-0.131972,-0.249399,-0.341313
-0.123693,-0.244619,-0.327661
-0.115414,-0.239839,-0.314008
-0.107135,-0.235059,-0.300356
-0.098856,-0.230280,-0.286703
-0.090577,-0.225500,-0.273051
-0.082298,-0.220720,-0.259398
-0.074020,-0.215940,-0.245746
-0.065741,-0.211160,-0.232093
-0.057462,-0.206381,-0.218441
-0.049183,-0.201601,-0.204788
-0.040904,-0.196821,-0.191135
-0.032625,-0.192041,-0.177483
-0.024346,-0.187261,-0.163830
-0.016067,-0.182482,-0.150178
-0.007789,-0.177702,-0.136525
0.000490,-0.172922,-0.122873
0.008769,-0.168142,-0.109220
0.017048,-0.163362,-0.095568
0.025327,-0.158583,-0.081915
0.033606,-0.153803,-0.068263
0.041885,-0.149023,-0.054610
0.050163,-0.144243,-0.040958
0.058442,-0.139463,-0.027305
0.066721,-0.134684,-0.013653
0.075000,-0.129904,0.000000
0.083279,-0.125124,0.013653
0.091558,-0.120344,0.027305
0.099837,-0.115564,0.040958
0.108115,-0.110785,0.054610
0.116394,-0.106005,0.068263
0.124673,-0.101225,0.081915
0.132952,-0.096445,0.095568
0.141231,-0.091665,0.109220
0.149510,-0.086886,0.122873
0.157789,-0.082106,0.136525
0.166067,-0.077326,0.150178
0.174346,-0.072546,0.163830
0.182625,-0.067766,0.177483
0.190904,-0.062987,0.191135
0.199183,-0.058207,0.204788
0.207462,-0.053427,0.218441
0.215741,-0.048647,0.232093
0.224020,-0.043867,0.245746
0.232298,-0.039088,0.259398
0.240577,-0.034308,0.273051
